# 3D point list with one line of data per point:
#   POINT3D_ID, X, Y, Z, R, G, B, ERROR, TRACK[] as (IMAGE_ID, POINT2D_IDX)
# Number of points: 351, mean track length: 5.2387519393208066
5698 0.35721470489186685 2.33944082769148 1.767313552428045 63 70 90 0.25794501045874396 76 395 4 470 49 284
612 0.75749540660091474 2.2194534973383062 2.1374710955195169 119 107 83 0.039963115006340082 97 381 98 361
5699 0.20629152523530914 2.5898947020307115 1.4159899577559036 3 4 6 1.4140214698420506 76 717 4 486
613 -0.15302349367134807 2.2610667155661455 1.5617842546832941 82 75 20 0.13255315222405253 97 391 98 362 95 179 99 124 85 122
5700 1.0079436227170375 2.3705831064291143 1.8369235448845014 100 68 50 0.28001485099347562 14 878 4 590 17 187 78 161 49 168 69 192
614 0.32839234877584816 2.2603154579171183 1.6978195392574045 36 43 61 0.36002223966884905 18 398 98 374 36 196 47 308
616 -1.3504000401605172 2.3680082759043457 2.1277274954334615 160 112 87 0.42573887937601296 18 366 98 388 48 859 97 820 47 219 95 138 21 503 44 198
5703 0.28787569231623955 1.4621568930869029 1.374020040391716 103 103 85 0.68146800990853273 14 901 4 757 49 466
617 1.1364094137665497 2.2811801485203338 1.9125131948176322 153 107 84 0.41792693574901946 97 852 98 400 48 849
5704 -0.35244210722913805 1.6762152369779699 1.3479141837193835 253 209 59 0.45190949401456509 52 1044 4 764 49 19 14 751 69 22
618 1.1189848736935351 2.3037363145702399 1.9173503352613013 51 32 23 0.50361568600884121 18 425 98 409 48 363 47 453 95 404 99 497 51 655 80 468 9 528 91 339 39 367 26 331 66 299 50 216 68 255 87 143 8 119 31 89 77 76 56 53 43 45 74 68 2 56 89 86 60 251 25 63 58 148
5705 -0.73656973101460932 2.2252692536250724 1.2105883496663539 135 120 44 0.74314364604557182 14 921 4 776 49 488 69 598
619 1.0853564420548885 2.3371296991678663 1.8784278159302621 30 20 16 0.16521949745808001 18 445 98 427 48 379 51 659 11 693 80 485 9 537
620 0.94575397946666528 2.3740800970436786 1.7936602185535022 113 83 72 0.23240952747578414 18 472 98 453 47 476 36 351 29 350 95 432 99 507 85 481 90 531 11 953 76 220
5707 0.39038238480339377 1.8480273302146395 1.8627973146959813 113 91 25 0.17317412765265261 14 942 52 1088 4 793
621 0.77456153879680556 2.4230491549274347 1.7266993563370738 32 22 19 0.070277409834723317 18 493 98 476 48 435
5708 -0.41609403630366293 1.581843913177295 1.3954235283842409 89 53 19 0.31435506876297298 14 992 52 1244 4 905
622 0.47375897278818963 2.4246998501591106 1.7106878665303498 91 83 67 1.4400699472059595 18 487 33 262 98 479
5709 0.54884441943917173 1.7668615762234179 2.817513831279332 98 66 48 1.0661475137041629 14 1067 52 1290 4 930
623 -1.241213730916056 2.5270593033295996 1.9392772513002452 234 220 185 0.095551341598684988 33 346 98 481 48 448
5710 -0.60248010714603273 2.3883173044780572 1.4939459552240555 3 3 4 0.55259921585431915 76 878 4 974
624 -0.24926999836014352 2.5032621495400349 1.4544476802085977 6 5 6 0.018516188960865404 97 522 98 503 47 435
5711 -0.048719969475864051 1.5422210264208127 1.4811224449404601 0 0 0 1.2687991597534192 14 1122 52 1309 4 981
625 -0.44461037307451273 2.5084263141482968 1.3583875034333852 26 34 50 0.019405748854562796 97 524 98 505
5712 -0.61774155942688691 2.8630779636802055 1.2717416220373243 91 89 79 2.5677474500712485 14 1126 76 892 4 993 17 723 49 686 69 729
626 -0.34986217279244652 2.5059979618094625 1.3995923875907028 23 31 47 0.17652897420878949 18 508 98 506 48 471 36 341 95 306 47 424 99 212 85 191 90 184 11 424 76 329 14 118 17 271 78 401 49 238 69 279
5713 -0.62379770913235699 2.2701638153312804 1.2655378451953951 100 87 26 0.31993289374773437 14 1132 4 999 49 691 69 732
627 -0.34903372786383208 2.5046205193554281 1.394141791694967 23 31 47 0.1537859974223782 18 509 98 507 47 425 36 342 29 677 95 307 99 213 72 168
5714 -0.93356454016119461 1.8728103938128127 1.5880865236444033 81 63 62 0.57173396293515866 5 37 94 74 96 47
628 0.40096107229137434 2.5038669726998957 1.6704239276993023 94 76 67 1.1829089073997889 97 525 98 510 48 906 98 1057 36 376 62 413
5715 -0.50680809347475198 1.8062535233091639 1.9007200998628684 78 60 61 0.44414785245256555 5 263 94 106 96 69
629 -0.93793980563856139 2.6239245694634992 1.6822316125992782 128 125 114 0.24314174171280664 97 890 98 527 47 826 29 706 95 310
5716 -0.55039682691630576 1.8980003069808598 1.8464289866891304 159 127 110 0.30397412991761991 5 264 94 107 96 73
631 -0.53029483224917784 2.6223045695621177 1.3457570696448797 24 32 49 0.24043324972136557 18 533 98 539 47 482 36 708 95 735 99 296 85 250 76 112 17 291 78 265 49 98 69 125
5718 -0.81561653877007501 2.1067931922847301 1.9661914372291003 82 64 60 0.2211952467662727 5 78 96 97 94 134
632 -0.50927178794754469 2.6368331364637525 1.359915781604597 57 65 87 0.26684086286907954 97 552 98 545 47 490 36 388 29 376 95 399 99 332 17 108 78 107
5719 -0.75905399053713662 2.1394741593646853 2.0001474990767898 145 140 152 0.31045745794196683 5 86 94 142 96 105
634 -0.72846879744725102 2.7873850035156269 1.8005835343000309 60 62 54 1.5187244967122429 97 561 98 561 48 492
5721 -0.6649849026009913 2.1440013755213347 2.0886705617960333 28 26 27 0.22319152536533124 5 105 96 125 94 171
635 -0.61534702074570746 2.8043043292267731 1.4016529059542107 67 72 67 0.22582972436870649 18 947 98 579 48 984 47 560 29 435 95 479
5722 -0.9397822108575975 2.2686230772120957 1.9777000473434834 80 64 61 0.58250114796502117 5 103 94 159 96 126
636 -0.27042232012918832 2.7880120883894377 1.2386438678786944 74 51 41 0.10941913163080587 97 582 98 583 29 446
5723 -0.75360573958581945 2.2108814786723845 2.0637935745307567 82 64 59 0.46317874130780085 5 115 94 179 96 134
637 -0.41408321531838788 2.8563672279092986 1.2467642166197617 106 72 54 0.44681079225889653 97 591 98 597 48 518 68 781
5724 -0.75360573958581945 2.2108814786723845 2.0637935745307567 82 64 59 0.46317874130780085 5 116 94 180 96 135
638 -0.47589968343167544 2.8823713218583955 1.2312943674906351 116 79 57 0.21341341408269954 18 578 98 601 48 521 68 461 8 379 31 310 56 273
5725 -0.81519596120227189 2.2927484835080394 2.0709510181767774 78 61 60 0.65475707998770105 5 130 94 196 96 149
640 -0.74322907540270278 2.9912672769499924 1.1586811733080025 121 121 111 0.53753601334722723 33 1085 98 605 48 1015
5727 -0.8903008175284306 2.3363359631738123 2.0470729420198364 162 158 172 0.7724391470491444 5 138 94 198 96 152
641 -0.69194519572131052 3.0078392307218822 1.0817680739527775 53 36 29 0.15438373270095615 18 584 98 607 36 754 29 489
5728 0.33582992607093071 0.89402336797140847 2.0095598290654304 253 192 57 1.2003445233463006 5 192 96 255 94 18
642 -0.6934838311513617 3.0094456042188686 1.0885494626780314 53 36 29 0.41367746514422143 33 404 98 608 29 490 21 596 81 556 44 509 72 600 3 576 62 578 73 330 54 354
5729 0.41857744779186767 0.96801865080907079 2.0998827740950006 255 195 57 1.5943033560986095 5 195 94 308 96 259
643 0.59324530925245289 1.2556030641142495 1.4110441310859339 119 107 37 0.10030287784056061 18 48 98 634 47 30 36 37
5730 -0.56057922065025623 1.5429057081353772 1.6426452761680412 69 50 49 0.96937607068322384 5 211 96 275 94 316
644 0.62684398301352118 1.2855660205830939 1.3583389275092759 127 115 41 0.21102304996686372 97 631 98 636 48 574 47 621 29 33 36 39 95 24
5731 -0.57753462423492252 1.5806643652292198 1.6389861217373649 164 160 175 0.9366221351080336 5 395 94 321 96 282
645 0.62643093439802588 1.285672170377236 1.3565768123104143 127 115 41 0.24222730421547403 97 632 98 637 48 575 47 620 95 23
5732 -0.33270225618621674 1.7652514893705928 1.3979026880872851 142 75 12 1.837951632009406 5 213 94 314 96 286
646 0.30400013233761408 1.4223077884700202 1.3605928503639013 23 28 41 0.090737402078915785 97 638 98 645
5733 -0.49902409850731355 1.6275612631617493 1.6303530468787093 165 85 13 0.74834161592403303 10 332 94 497 96 289 5 219
647 -0.080163849802067783 1.5521259194322694 1.8498216928357309 127 86 15 0.15935235772947268 97 112 98 661 36 553
5734 -0.30463752815317668 1.8444912537289504 1.3849934964053248 160 87 14 0.014773146861425127 94 322 96 295
648 0.40753002232498364 1.6179511501021104 1.5460587766482208 30 36 51 0.11169534176492353 97 659 98 665 47 934 36 790 29 784 95 808 72 58 62 67
5735 -0.90155963027749464 1.8605287248400078 1.5864779492547263 189 185 199 0.57660587460965729 5 228 94 335 96 305
649 -0.41912214204429654 1.9399878966412967 1.5705742028920746 255 216 58 0.10223256251206077 97 693 98 692 36 108
5736 0.27874174866403478 1.8369847239785351 2.1400063184273641 161 152 159 0.057788377671551712 10 418 96 364 16 549
650 0.17827748295112303 1.9317354091458414 1.5887650727987457 102 92 28 0.53595605720753048 18 1049 98 700 48 1079 47 966 95 837 90 877 11 1056 76 286 14 496 17 224 78 203 69 246
5737 0.1727617714686332 1.9633071946299898 2.141042215548286 143 69 5 0.71390872888432089 10 431 94 398 96 380 5 296
651 0.17738463120657047 1.9331722233057027 1.5847342882592066 102 92 28 0.52648639536912045 18 1050 33 520 98 701 48 1080 47 967 95 838 80 1128 68 911 21 426 81 61 3 86
5738 -0.9946822110378728 2.2584878092176845 1.9189635308509063 9 6 6 0.45199430943933366 5 299 10 415 96 382
652 0.036855787799061547 2.0074285999762433 1.5168313210050806 70 51 8 0.53820286410441442 97 277 98 716 48 798
5739 -0.29339616795984397 2.0076041296109532 2.2513742154739362 30 27 28 0.022828378632716681 10 179 96 397
654 0.88253841174024406 2.0985499128233021 2.2996100071084218 112 103 83 0.19987837563320074 33 534 97 763 98 739 47 747 36 630 29 620 95 652 99 681 85 867 90 938 11 1195
5741 -0.9360971234811537 1.6878512571123396 1.4080847098277889 254 199 56 0.98366930887183546 5 389 94 484 96 486
655 0.75997410585381642 2.1423843673449827 2.2552727194951205 114 105 82 0.11202907829906601 97 776 98 748 48 816 47 756 95 657
5742 -0.3642979370809154 1.7871584308052233 1.395972184813973 247 181 47 1.6597234280307476 5 393 96 504 94 496
656 -0.54973690614587034 2.2161611691658645 1.3740141708763884 56 50 50 0.41984470524770434 97 794 98 749 72 116
5743 -0.066796466443998892 1.6657789232824709 2.0116372204741975 37 36 37 0.26013113481623995 5 448 10 691 94 543 96 537
657 0.70455305141948676 2.1628400886002614 2.2398768576245884 110 102 81 0.51181303135222878 97 786 98 758 48 281 18 326 47 761 36 636 29 633 95 663 85 681 80 289 88 370 78 289
5744 -0.4791797655293818 1.9620511149790891 1.9603170142779147 123 58 3 0.22162490356352557 5 67 96 553 94 123
658 -1.2893991306197878 2.3040529561092042 2.1841290170816761 27 0 0 0.55527315626650098 33 1041 98 778 72 569 44 436
5745 0.11944537724605361 2.0309819449496711 2.1090154510060861 62 36 12 0.45684873986789803 94 569 96 567 5 468
659 -1.2865251404406537 2.34687193874983 2.157795500222301 155 108 84 0.38642355801411837 33 656 97 371 98 790 48 854 80 840 18 847 68 977 21 497
660 1.5072812769735733 2.2501182798864714 2.0661097455666462 89 89 83 0.51965498829035917 97 1076 98 794 47 1037 36 867 29 862 95 929 85 995 76 723 17 636 78 573 62 643 49 604 90 1272 69 641
661 0.36433296634528906 2.4178825595507467 1.8093887272334093 3 4 4 0.24524321242920533 97 865 98 814 48 882 51 913 95 732 9 458
5748 -0.001652001105398801 1.1824203555147144 1.8275134767433707 255 200 55 0.79191727611563956 5 676 94 854 96 618
662 -0.77490678171880201 2.4428640051054908 1.2239916318539388 93 108 141 0.27279195821991231 97 1105 98 816 48 1226
664 0.18052196047679486 2.5514794701722452 1.6682251743229308 3 4 5 0.60829056858247976 18 901 97 1124 98 833 48 920 47 501 99 474 68 723
5751 0.13288910290142869 1.7322461681492565 1.9358795153133246 196 128 25 0.84234463345719801 10 947 94 781 96 659 5 707
693 0.21143586030607903 2.6429151132942654 1.577590308707288 30 22 21 1.5603832930289678 97 1142 98 1079 48 1239 36 721 29 894 62 418 72 432
694 -0.31062522620811261 2.7268905351539674 1.4639065085070839 3 5 8 0.07679647255983639 97 1148 98 1090 51 1241
695 -0.44403057568560877 2.8094657400804159 1.3572746165900917 90 98 97 0.61560130734658947 97 1155 98 1093 47 1190 36 460 29 447 95 506 85 465 95 501 90 734 11 887 11 1406 80 1209 9 953 88 669 91 569 39 568 66 769 66 965 23 335 13 326 93 110 60 298 27 164 57 105
699 0.05983486487962103 1.3134184221967231 1.8840969195724158 135 93 20 0.53294397005596561 18 1407 98 1120 29 939
706 -1.1697822261851372 2.3465342225616546 2.1615126486773355 69 44 29 0.40483333941902633 33 1043 98 1162 48 1353 36 989 29 995 68 1143 8 1000 74 1024 25 1003 21 909 81 836 44 752 3 844 62 658 58 928
720 -0.6186645987001872 2.2596641326913653 1.3109716519804098 101 87 24 0.6194554337047361 97 1340 98 1256 36 1103
727 1.0945139160119877 1.8001216206136852 2.6235374217460734 0 0 0 1.6086570460355141 33 1183 98 1330 48 1567 47 1237 36 1099 29 1053 95 1175 97 1036 95 1200 78 562 17 621
733 0.15007463026707793 1.3905507315197894 1.8038602997768172 120 88 19 1.1480376291859147 97 1456 98 1366 36 1158 29 1166
734 -1.070056286748819 1.8647565722579005 1.4991077675811464 0 0 0 0.87398182042341455 97 1485 98 1399 36 1185 29 1190
743 -0.11514825152846839 1.8648785002728845 1.5772097124586486 146 104 25 0.25277829441101141 33 100 48 170 80 203 68 228 26 131 66 156 50 231
768 -0.50655323234098637 1.6399215200844173 1.1814424187174091 172 127 27 0.024474485921686363 18 657 48 629
783 0.97194635709315713 2.2837603120992913 1.8618664163863676 108 76 65 1.3818908878562195 33 585 48 850 29 663 36 662
784 1.0383976131740509 2.3393868108241391 1.8558297289260453 107 77 66 0.23889836055242875 33 234 48 861
785 -0.78819485324191529 2.3411574550099754 1.3735335695240933 53 53 54 0.69419765907721886 97 426 98 795 48 889
809 0.35012573342561776 2.5339607065020626 1.634360028443901 41 30 24 0.41404777797847508 18 1358 48 1376 80 1398 68 1146 26 947 88 725 87 864
812 0.38071851603027129 0.71185549081923549 1.8113747034979657 0 0 0 1.597724376325558 33 1088 48 1425 47 1081 36 1015 29 1022 95 971
820 0.36700550086167627 2.2178397825096114 1.6899014175545559 41 48 66 1.2772580593735363 33 1024 97 1399 48 1539 47 1238 95 1117 99 1277 85 1230 21 794 44 669
828 0.7554138714464681 1.3674271546322754 1.4784162027229122 104 91 25 1.4250645279357392 97 1455 18 1543 48 1583 97 1416 33 1238 98 1322 47 1348 36 1119 29 1165 36 1157 95 1229 85 1280 99 1329 90 1355 11 1644 17 691
843 1.0376131372311193 2.3191495273287464 1.8890451674762441 32 19 16 0.30525379098384919 18 430 47 452 99 490 85 730 90 769 51 649 11 948 80 470 27 665 52 1008 14 723 76 442 4 735
846 0.23539056188479396 2.6142962591807755 1.5758863827069645 99 108 105 0.6061974872880278 98 540 47 534 81 638 72 206 3 447
848 -0.33003876868850385 2.789288346883759 1.3305461432866692 22 16 15 0.061727585733017086 97 1154 47 580 95 510
849 -0.16089367807025601 2.7684650843819902 1.283031405305616 35 24 21 0.3835420318634481 98 578 47 583 36 729 29 730 95 752 99 543 85 503 90 509 76 429 52 238 14 596 4 478 17 348 49 311
851 0.83920064747829115 1.3097601404095673 1.4454455727054394 97 76 17 0.32575818575394899 97 635 47 628 36 523 29 515 95 559 85 23 99 24 90 46
856 0.33804781478817286 2.4057764253683298 1.7766067949474451 49 60 83 0.70874954938839507 97 481 47 828 36 681 29 679 95 724 99 710 85 705 90 731 11 578 76 417 72 163 14 618 52 651
857 -0.40417989556421569 2.8842206237493371 1.2127720815242076 120 81 58 0.12896430892471764 98 917 47 881 36 744 29 742 90 518 99 546 11 667
861 0.4073718213305047 1.6174976846260767 1.5472457418241377 23 28 39 0.036734527857658204 18 673 47 933 95 807
863 -1.2305210071372763 2.4830152601902764 2.0166198566671714 231 216 178 0.22009679141096664 97 1088 47 994 29 851
866 0.99662704742810482 2.3359515143989569 1.8530382008121071 29 19 16 0.26028431055303897 33 856 47 1038 36 872 29 864 95 922 99 1018 21 454 14 869
871 -0.41305925637718538 1.6395640670355285 1.1805900010794761 173 125 23 0.26090581768902094 97 1009 47 1102 95 995
872 -0.14416580649801308 1.8683024382309965 1.5732337261757949 222 178 54 0.26237592276156663 18 1437 47 1136 29 973 95 1016 99 1087 85 1038 90 1099 51 1523 11 1312 80 1522 9 1306 68 1337 76 264 88 1368 91 1240 39 1249
873 0.14221258686648713 2.0049010500928812 1.5404823091469932 10 9 12 0.61300446232262873 48 1091 47 1146 29 984 95 1025 99 1105 85 1058 90 1119 51 1158 80 1306 9 931 14 934
892 -0.66983338278159954 1.4720806042836823 1.1964504180923106 0 0 0 0.99561615528365666 98 1390 47 1363 95 1248 99 1349 85 1291 90 1374 22 1051 52 1316
915 0.55961419129903989 2.2995492321449817 1.7792507436573466 226 208 171 0.84833110943975709 47 809 36 269
917 -0.53288465028817089 2.4781464468904875 1.2657063925250573 6 5 7 0.070910834305801557 98 490 36 308
965 0.47853152569296875 1.5015533296065149 1.5891668286121516 106 83 21 1.8742413634119452 47 1218 97 1201 36 1026 29 1035 95 1007 78 526
968 0.93010498116723228 2.4110799639642742 1.7745294037570987 36 25 22 0.42343445589658874 47 1257 36 1054 29 1076
1074 -0.68769117805592683 1.8258427343547443 1.0844174736560279 105 92 27 0.36813525428208999 36 951 29 957 95 1093
2558 1.0404045113260014 2.4155567681471881 1.8065650335453782 0 0 0 1.0673906346271036 39 1219 66 953 13 880
2559 1.1122866588406513 2.0215671513250806 2.39782267377598 238 221 181 0.21904720642317918 91 1052 13 915 39 1067
2560 1.3695189041725613 2.2171469864960196 1.9781748975118143 147 99 74 0.59595844811360421 66 940 13 937 60 835 71 813 41 905 38 861 24 850 61 1008 84 989 20 881 6 863 59 986 10 973 75 870 16 1017 22 799 82 767 57 894 40 723 46 981 64 933
2561 1.482176805346813 2.283448748304612 2.0279209095427904 0 0 0 1.8968917314911045 91 1114 13 939 27 1304 39 1126 57 895 65 823
2562 -0.83025112345860341 1.5671982131065008 1.3611414345036408 255 244 71 0.024167605974976816 23 1024 13 941
2564 -0.49230057352697065 2.8724546460707416 1.2807015303792735 64 49 48 0.26287301120754453 50 986 13 964 87 1016 8 1111 31 1062 77 1066 56 1101 74 1103 89 800 60 880 25 1104 42 658 58 1001 57 610
2565 0.26835498695729038 0.8593213517544368 1.7500312259980406 154 164 188 0.10783568120132618 23 1041 13 970 93 751
2566 0.40261080488877843 1.081756297371961 1.8776747827088474 255 242 72 0.33809168941657952 23 1069 13 989 93 1050
2569 0.68750839885901782 1.6260409269929885 3.0289414080650396 158 105 79 0.39910164731352948 23 1105 13 1017 93 1094 57 887 40 724
2571 0.86539613778057778 2.3304424192867716 1.9314420853102434 227 207 165 0.35904315133215209 23 1111 13 1021 93 1098
2572 -0.23828240787119542 1.8857569497445572 1.431136955108989 255 228 59 0.15428126826331906 23 1139 13 1048 93 1126
2573 -0.19354317417518938 1.8110448248852145 1.5985017864799949 22 19 14 0.051038335605052554 23 1141 13 1057
2574 0.35618632501872638 0.74962010295024417 1.8023258378935025 254 252 78 1.0694973022121654 23 1140 13 1065 93 1121 57 840 19 913
2575 0.46394700420293988 0.82472151444119535 2.0664656806008335 255 254 78 0.58720310839430945 23 1156 13 1081 93 1132 19 1069
2576 0.44999301674916586 1.6729409184161355 2.9904867099154866 0 0 0 0.73853378410963377 23 1172 13 1090
2577 0.81371157200505073 2.4163166690467999 1.7302166229145295 90 61 49 0.86782524214026691 26 1105 13 1093
2578 1.0807417738829992 2.2689911861619882 1.7596044916863021 92 64 52 1.1672459717991264 39 1314 93 1186
2579 1.034971142667952 1.7976478729474816 2.785488271877822 243 223 180 0.08982149522474811 88 1313 13 1098
2580 1.1007816876494683 1.8780216733504691 2.6927148011039859 244 224 180 0.10629458086698899 23 1180 13 1099 93 1150
2581 0.47332584183765242 1.0781956528182803 1.4169565013349847 198 210 235 0.21480447281720672 23 1210 13 1126 71 1056 42 986
2582 0.60473870876259284 0.91807690943016429 2.1631930968863164 255 245 68 0.26706902616557338 23 1232 13 1148 93 1198 57 969
2584 -0.74912352632799573 1.7422559166348144 1.1140794142146244 255 216 52 0.99660285405015325 23 1254 13 1168 93 1217 57 997
2585 -0.76057047279029921 1.7421384794427102 1.1167618784771953 255 216 52 1.530727724267579 23 1253 13 1169 93 1216 42 1028 71 1098 53 1177 27 1332 57 996 19 1210
2587 -0.64880770545909749 2.9268993552986169 1.2236985663514219 124 115 98 1.2686340091852071 23 1257 13 1172 93 1221 42 1018 27 1341 57 1001
2588 -0.37807885946444736 2.8490191939458374 1.2404180786744294 113 79 61 0.28386126166576969 48 1267 80 1216 9 960 13 64 68 1039 26 592 66 771 26 764 50 697 87 760 8 861 60 301 25 850 58 586
2589 -0.58781228028841481 2.9066698389115322 1.219744274632697 113 111 99 0.67000892201641526 26 1048 66 1071 13 536 97 1162 18 1229 98 1099 48 1417 33 1082 97 1302 47 1078 51 1252 90 739 11 898 80 1415 68 1178 87 1020 8 1115 31 980 77 972 56 1023 2 1026 43 892 74 1026 89 808 60 727 25 1017 42 487 21 734 33 958 45 802 58 812 90 741
2590 0.97577087919242012 2.3596738735192266 1.8361555592538101 108 83 73 0.49777000972997115 26 752 66 757 26 572 66 573 9 954 68 664 39 843 97 474 18 875 48 863 47 471 95 425 99 502 85 476 90 771 51 938 11 954 80 915 80 1187 9 794 88 951 23 735 13 661 93 717 27 970 57 552 14 386 40 262 92 468 65 449
2591 1.346927090861048 2.1610375532673411 2.1635396006654073 231 217 180 0.36240434412450523 97 808 18 1085 98 770 48 1110 51 1401 11 1481 9 1130 26 926 66 913 13 936 88 1237 91 1109 39 1125 23 1020
2592 -0.082149816945865539 1.4675857014644191 1.2101127129206015 253 212 55 1.9485887231992112 9 984 93 16
2593 -0.28760340190324007 1.7777458655800145 1.2377223262305876 179 179 195 0.18509241592152992 23 26 93 18 57 14
2594 0.74925921149810715 2.1936876723260235 1.603829340116147 147 93 65 1.4269701776070289 23 267 93 256
2595 0.6422963294513081 1.7882751681979077 2.8269876665996541 102 93 72 0.018955989510887786 13 269 93 259 27 244
2596 0.92158678861206667 2.0643629228852296 2.3497171741931653 236 217 176 0.0023081145238292031 23 277 93 280
2597 1.1979529459216653 2.2474664435167653 2.0468745948438301 111 74 59 0.17284480547560541 88 461 93 293 27 367
2598 -0.33621233682778023 1.7304288479893641 1.2224975832508014 96 89 32 0.32577043540094186 50 494 93 305 19 440
2599 -0.25726642974236896 2.1503664175495292 1.3510876398217597 225 183 48 0.18666286369606291 23 322 93 340 57 64
2600 0.59804516864771029 0.98952231974512161 2.0965968938056663 254 218 55 0.24959168748533744 13 589 23 617 93 401
2601 -0.13202163247166188 2.3489800136231977 1.6220201762388797 4 4 4 0.49260927303718338 39 543 91 534 93 402
2602 -0.76559385810579272 2.9728746374436126 1.1327803657414148 0 0 0 0.26681068541977104 11 893 93 542
2603 0.60527145596861054 1.8237178914123739 2.8036507918296421 230 216 179 0.39125528621787781 23 686 93 655 27 590 19 802 40 566
2604 0.59606290336491008 1.8239929007805571 2.8547886448088517 125 117 102 0.064117119725909721 23 516 93 656
2605 0.96147035396986658 2.3393224607278875 1.9756492678090205 106 72 57 0.59498854338942964 39 657 91 645 93 722
2606 0.82568302295003682 1.0550620285673129 1.997365040171339 255 228 64 0.046393236876975247 39 930 93 805 91 897
2608 0.4303892649792852 1.7634069209154963 2.8254357758783679 149 95 67 0.46438576541228765 11 1049 93 828 27 1074 57 642 52 911 4 460 14 135 19 981 40 535 82 651 92 891 65 880 86 662
2609 0.6472565014521322 1.8494610483825962 2.7516901121131347 237 220 179 0.020193814562843311 13 792 93 866
2610 0.92912690508253171 2.3328276494141149 1.9185528891053905 106 72 56 0.64746983575109052 13 849 93 956 57 711
2611 -0.73543624096983717 1.785697384194189 1.0296039442006721 254 229 73 0.045194679757261151 23 1029 93 1025 57 582
2612 0.30140388655978784 0.72889316084611622 1.8043464200974266 0 0 0 0.73003465707364334 23 1135 93 1035 57 903
2613 0.82339228823966337 0.96611414940617857 2.1482150109292539 0 0 0 1.2227223631426405 39 923 93 1082 91 888
2616 -0.72027989155067773 1.9739496504378597 1.1579008772876307 109 90 25 1.8479785197416487 39 1237 27 1306 52 1310 14 1107 4 961
2617 -0.64776194997738779 1.5001261695695676 1.5756208648143908 0 0 0 1.2850726847525757 23 1223 93 1193 57 967
2618 0.8216519985704489 1.1385046206102309 1.9806547008615416 109 74 61 0.71849058285066258 39 1342 91 1318 93 1208
2619 0.61510530285601173 0.96941588946802992 2.1751408634494438 155 107 28 1.3523545067078604 23 1260 93 1222 57 1005
2620 -0.52763020437391905 1.55836395548165 1.5513186966926045 255 235 62 0.99155672567538056 23 1244 13 1170 93 1202 88 1440 91 1306
2621 0.98411861857339566 2.0697416290705091 2.3432710450175698 232 215 177 0.66929182803952469 9 1041 88 1151 91 1032 39 1050 23 967 13 884 93 965 88 924 39 822 57 754 40 590
2622 0.61722580966980922 1.7639326849265302 2.8690972429259105 234 219 182 0.7954877134694337 47 683 95 617 99 633 85 610 90 637 51 1047 11 1061 76 92 93 1093 23 1104 13 1015 27 1214 57 885 52 916 14 558 4 193 19 1115 40 718 92 925 65 912 86 664
2623 0.29838297473126113 2.680209411353391 1.5201978826543254 37 40 36 2.5367060914030106 9 1164 93 823 39 820 88 1152
2624 0.48895489858437635 1.087668033085073 1.3931291716338994 187 197 223 0.37738762796595399 80 40 87 43 31 359
2625 1.4470325648841 2.198298791573948 2.0381641642555555 47 32 28 0.066320413515243259 50 169 87 58 8 55
2626 0.29431806140619193 1.8052492433706921 2.7940456045020698 23 13 10 0.18746302421058153 50 39 87 93 8 98 31 100 77 105
2627 0.29737031722208712 1.8064159691907671 2.7951833312847887 23 13 10 0.25277555334921481 50 40 87 94 31 101 77 106 56 111 2 144 43 151 89 422 32 251 15 535 71 454 28 609 70 623 45 106
2628 0.24748267964079829 1.8500810526506737 2.7737216769945361 109 80 68 0.22313596842931632 50 45 87 111 31 105 77 114 56 118 74 132 15 533
2629 0.34827862717447167 1.6037495773596802 1.9934545788852804 36 40 51 0.20211016590723185 50 423 87 116 89 434
2630 1.1230331667420461 2.2753297469280471 1.9172951088594699 150 102 77 0.19234551100497774 50 212 87 135 8 112 31 82 56 43 60 255
2631 1.0795728258145352 2.3347673377981422 1.8804230306379368 35 26 25 0.093799735601432982 50 228 87 151 8 130 31 95 77 87
2632 1.0795728258145352 2.3347673377981422 1.8804230306379368 35 26 25 0.093799735601432982 50 229 87 152 8 131 31 96 77 88
2633 -0.11300104737492336 1.9574120132242268 2.6495458048894571 49 31 27 0.44188813521856429 50 71 87 170 8 176 31 149 77 459 56 487 2 508 43 192 89 146 60 81 32 285 15 298 42 109 71 129 28 409 70 406 75 540 34 616 45 521 7 556 63 506 37 450
2634 0.89442099016359145 2.3778008085298654 1.7836461681813902 37 27 28 0.21407466465897598 50 248 87 176 8 156 77 104 56 87 2 96 74 122
2635 0.77565787311660805 2.4327075214846268 1.7869163555709175 102 71 58 0.34277965360849133 50 254 87 195 8 181
2636 -0.42004638653457127 2.1215492991337772 1.2600136186548445 126 86 30 0.130905493017756 68 363 87 275 8 286 31 241 77 216
2637 -0.78517435691505777 1.7887190833782489 1.0524946527985186 90 72 14 0.45586270294495657 50 297 87 295 31 566 77 234 56 225
2638 -1.1009413664772076 2.5134640526397769 1.9474314226189939 150 145 129 0.26746546328140897 68 741 87 318 8 368 31 598 77 587 56 619 2 633 43 315 74 625 32 321 25 666 45 644 58 410
2640 0.22705837388765276 1.8243413216415123 2.7851977225657225 50 33 28 0.16249803583854097 50 374 87 404 8 450 31 449 77 417 56 452 2 444 43 423 74 450 89 428 25 76 45 119
2641 0.29099106671348651 1.5535823770167274 2.0182556964460208 238 221 183 0.66750744022934061 50 753 87 410 8 426
2643 -0.31925779877506527 2.0242955731521657 2.524269783328041 23 11 8 0.52229820065323784 50 425 87 462 8 515 31 494 77 484 56 515 2 218 43 222 89 170 60 58 32 300 15 296 45 220 58 512
2646 -0.32440507965767251 2.0535050847774632 2.5075953746362094 133 90 68 0.16204663493973773 50 428 87 467 8 520 89 466 60 314 42 299 71 335
2647 -0.63501151471366535 2.1600988693175789 2.3695967644462592 103 71 58 0.27089058548879053 50 451 87 487 31 538 77 531 56 564 2 568 43 488 89 489 60 291 32 558 15 546 42 278 71 309 83 358 38 140
2648 0.36395160908816793 2.5862624835905095 1.5693770985819406 57 44 43 0.20041332212701019 50 510 87 489 8 557 77 162 56 162 43 164 2 182 74 214
2649 -0.84873711418447528 2.1971568683184577 2.3388947885941769 105 73 60 0.2104376100847242 50 159 87 498 8 581 31 555 77 555 56 577 2 590 43 502 74 580 25 594 58 563
2650 -0.6679943988465542 1.631523420739706 1.2148764687492213 205 132 40 0.24470384532040465 80 92 87 505 8 562 31 537 77 505 56 535 2 197
2651 -0.93576785512944838 2.2764289679006704 2.2320194647950995 106 73 60 0.16002113788185399 50 197 87 508 8 590 31 571 77 564 56 585 2 603 43 507 60 9 32 562 15 547 28 642 70 660 45 627
2652 -0.93790072727600737 2.2714997693529178 2.2254519691628052 106 73 60 0.044221614768907951 50 198 87 509 8 591
2656 0.52302658808337932 1.036794813197436 1.5287175991473581 140 126 38 0.33403888496928635 50 555 87 590 31 622
2657 0.64439527827991272 1.1496933787922046 1.3476725108673555 120 104 30 0.4768320004046554 50 582 87 597 8 658 31 623 77 603 56 635 43 531 74 641 2 896 32 571 25 696
2659 0.73194508459782359 2.4102279742708275 1.8185036747857937 64 41 33 0.24664245362836831 50 666 87 668 31 701 77 679 60 669
2661 0.65399235344207185 2.4583509190418695 1.7598756510250881 138 92 68 0.30672476706903362 50 671 87 681 89 593 60 663
2662 -0.7086885282085611 1.6482157427084965 1.2062223194066179 184 144 49 0.38524327167478001 50 675 68 625 87 729 31 763 8 563 77 513 56 792 2 524 89 651 60 276 15 621 53 2 100 0 79 320
2663 -0.71644077422332864 1.6637877604987803 1.1743789928180566 254 222 70 0.305092639690005 68 637 87 730 8 798 31 764 77 740 56 796 2 780 43 722 74 511 89 519 60 275 15 423 25 501 42 0 71 1 45 460
2664 -0.38972502279016003 2.1345257583321962 1.2566104209058726 251 209 64 0.23654018047320552 50 845 87 732 8 808 31 765 77 516 74 550 89 641 60 572 25 786
2665 0.54460278958209685 1.044794835813267 1.4607441641405297 149 133 44 0.46288150854711296 50 750 87 790 31 857 77 832 2 894 43 780 74 910 89 704 60 802
2667 -0.055182495366017874 1.8902745212293908 2.7080522317598268 112 78 65 0.56708199444125074 50 739 87 830 31 908 77 899 56 936 43 849 89 749 71 767 40 504
2668 -0.17564723959562914 1.9453394166613598 2.6620971443788255 111 76 63 0.62160259342205804 50 744 87 838 8 758 31 915 56 947 43 860 89 755 60 751 42 861
2669 0.012724270624208979 1.5553061908394235 1.5955651839334835 201 172 57 1.5032302255948535 48 1044 50 908 87 841
2670 0.50370458874442681 2.3212391045999943 1.7075118531933391 213 198 163 1.3590030805223785 50 827 87 851 8 762 31 708 42 544
2671 0.27529979320038916 2.6243781456350921 1.5505549157922629 42 35 37 0.42599935676746531 68 1251 87 872 8 981 31 928 77 920 56 766 77 713 2 765 43 841 74 761 32 633
2673 -0.0020757923670670642 2.7154707518268895 1.3833521918469829 42 36 39 0.48358471445815532 50 856 87 882 8 995 31 953 77 1048 56 975 2 988 43 859 74 976 89 883 25 982 71 719
2674 -1.1123166330231506 2.4393882284732982 2.0506996788344072 229 214 174 0.36094688539780606 68 1147 87 889 31 973 8 1002 77 1073 56 1037 2 1124 43 911 74 1107 32 987 28 1105 70 1102 45 1047 58 931
2675 -0.4745437144289445 2.9136806408892086 1.1838509370222112 127 87 67 0.72971325890390937 50 990 87 905 8 1113 26 955 31 1065 77 1069 56 1013 2 1018 43 1004 74 1021 89 801 32 1026 15 854 25 1012 66 596 58 798
2676 -0.64738092668282654 2.9307811655517795 1.1892401556371481 157 152 133 0.42819535043355283 50 864 87 907 8 1013 31 985 77 975 56 1032 2 1032 43 730 74 1030 89 658 60 563 25 1020 42 483 13 531 71 265 45 812 58 817
2677 0.23493179569502051 1.6102690601638692 1.9377656096003124 130 86 17 0.64302952001764024 50 895 87 941 8 1036 60 903 89 856
2679 -0.80760370186244712 1.6449016229969395 1.2206622926641164 255 235 73 0.43815966423583375 68 1230 87 994 8 1079 31 1049 2 1099 43 1009 89 921 50 956 60 846 32 957 15 900
2680 -0.31330858424227181 2.8205066448053286 1.2424649486400445 109 77 62 0.39721632761629655 50 985 87 1009 8 1104 31 1057 77 1061 56 1005 43 991 74 1095 89 796 32 907 15 577 71 518
2681 -0.49512199901927612 2.8335122773784094 1.3347475119352006 104 113 111 0.75687229961693991 68 1322 87 1014 8 1172 31 1061 77 961 74 1154 25 1150 58 1077 1 774 35 531
2682 -0.8783398391965016 2.9300615959459306 1.4412372545309615 127 129 118 0.77369287922018248 80 1490 87 1022
2683 -1.0183212846846714 2.2139151660856635 2.3427649824093422 0 0 0 0.90968054462891867 50 1017 87 1059 8 1089 13 1042 56 1104 82 748
2685 0.4713664307198922 2.4512429353596494 1.7497920840220782 199 186 155 0.26219751122022028 68 1361 87 1094
2688 -0.19995829433808396 2.393682662191841 1.4378526710852515 22 28 39 1.3869873029564674 87 1127 60 1045 89 1033
2689 -1.2687383909599914 2.2665832336737139 2.2846253540962573 0 0 0 1.5698296022448639 87 1145 31 1217 77 1206 56 1230 2 1234 43 1153 74 1237 89 1059 60 1064 32 1226 43 1157 42 1021
2691 -0.0049549622099067034 1.5519596670069224 1.6758795142340226 185 161 54 0.26836766831227166 50 772 87 839 31 899 77 885 56 914 2 701 15 889 43 830
2692 1.1142998233977912 2.2867711531566695 1.9646405478636719 44 28 24 0.13816106226924435 48 348 8 113 31 87 77 71 56 50
2693 0.19765180120154954 1.8204839150247929 2.7986206826367037 156 137 131 0.2721249865255726 87 109 8 116 77 420 56 453 43 428 89 432 50 370 60 342
2695 1.017439002008927 2.3563222135191602 1.8533981680656948 40 29 25 0.099228455071864147 87 155 8 140 31 103 56 72
2696 1.017439002008927 2.3563222135191602 1.8533981680656948 40 29 25 0.099228455071864147 87 156 8 141 31 104 56 73
2697 0.89093967179197464 2.3744989314469174 1.7814410434183949 41 29 27 0.12187576503713467 87 175 8 155 77 103 56 86 2 95 74 121
2698 0.4511297632551266 2.1923026540914234 1.6506790853197337 3 2 4 0.38979198729131609 87 463 8 187 25 491
2699 0.46389280187460707 2.2115334158160067 1.6688950242529939 3 2 4 0.16701229237662812 87 464 8 188
2700 -0.70934647481233037 1.6238855154072458 1.2510197339042193 180 140 36 0.1295363803404504 68 215 8 243 31 234 77 201 2 522 25 490
2701 0.21453183267819415 2.5969772706718675 1.6007074389981992 95 104 105 0.13966869408092475 9 787 8 250
2703 -0.72274732207348258 1.6815610359562962 1.1619266800586279 162 126 34 0.34529384854631412 87 516 8 261 56 210
2705 -0.86604569014000765 2.2193378421423784 2.3279921189068178 43 28 24 0.28069657474747256 50 165 8 291 77 557 56 580 2 594 43 292 74 583
2706 -0.4819437332608496 2.1456700207895794 1.2326310598102155 98 75 21 0.079891185401754883 87 283 8 297 31 252 77 227 74 237
2707 -0.92716179226934725 2.2541904277336831 2.2559088773829976 43 28 23 0.12510946994865962 87 265 8 305 31 266 77 257 56 276 2 599 43 297 32 324 15 301 28 437 70 437 45 625
2708 -0.79877700313907884 2.1213592246107296 1.4801129578832912 131 101 24 0.39032896422147662 68 360 8 319 77 249 2 572 74 576 25 225 45 549
2709 -1.2665351409827432 2.3347956801825167 2.1660589098409866 68 45 35 0.068774580343592059 87 298 8 349 2 639
2710 -0.45977717599103884 2.8903811097523402 1.2023293812974867 62 47 42 0.1826055231859611 87 331 8 380 31 311 77 285 56 271 2 307 74 337 25 657 58 600
2711 -0.45905171539158807 2.8920534978187971 1.2036669093346444 62 47 42 0.15731119893910642 87 332 8 381 31 312 77 286 56 272 2 308 74 338 25 658
2712 1.3350401036342976 2.2320956530913731 2.0636241610925232 224 205 167 0.10735490733869575 87 392 8 428 31 386 77 357 56 351
2713 1.1129478824462253 2.2655518154946197 2.0324749481342486 225 208 170 0.10581487035865138 87 418 8 449 31 417
2714 1.0534608310439921 2.3443532130964875 1.8504226743508334 105 74 62 0.16510293453913455 87 646 8 464 31 680 77 394 56 696 2 404
2715 0.93909824008440357 2.3421965666476683 1.9618505281734469 223 203 163 0.17601109737054665 87 437 8 469 31 448 77 404
2716 0.98606046174945361 2.3656455576816895 1.8475486831333108 104 73 61 0.2529192428074733 66 758 8 474 31 444 77 96
2717 0.56081026419094937 2.2330701337177157 1.7786497418504095 220 204 170 1.3091092963539532 87 669 8 488 60 653
2718 -0.32386343338801638 2.0241812593021495 2.5277955183538192 25 12 7 0.16345709044089299 50 424 8 514 58 511
2719 0.46967342044297467 2.518636822137458 1.6702891613114115 117 77 59 0.15048050417745318 87 701 8 536 31 488
2720 -0.60291821943306756 2.0869525518447336 2.4320079180487104 107 74 61 0.20926480827617253 87 476 8 559 31 526 77 515 56 554 2 565 43 484 60 26 89 484 42 60 71 82
2721 4.545452108865411 11.468036112674181 13.593842131182083 157 127 37 2.1661817656159994 26 234 66 179 8 576
2722 4.4873156239597458 11.378824762092655 13.394507026782408 157 127 37 0.98755111576966881 26 235 8 577
2723 -0.25430262731882014 2.3332404122629162 1.4294919778657929 15 14 10 1.9837626456411501 87 268 8 579 31 239
2724 -1.0060345512803257 2.3033931688965041 2.2135341928855925 104 73 61 0.19939308589963645 87 513 8 596 31 577 43 512 89 502 60 274 42 242 71 286
2725 -0.54981342213307549 2.7172150523244714 1.3018756215075478 9 11 15 0.17130657252244566 87 546 8 632 25 640
2726 0.47235121352974441 0.99947853059584879 1.6171753191392988 116 97 26 0.28601443094864454 87 588 8 653 31 621 77 608
2728 0.29790014927576608 1.6595385164910323 1.832474420644159 150 113 28 0.1793046835371086 87 823 8 719 31 682 77 662 56 704 2 687 89 743 60 775
2729 0.87080497298570692 2.3897479662294265 1.7545510012327676 106 74 62 0.21504003480128522 87 661 8 752 31 696 77 676 56 707 2 415 74 449
2730 -0.68914436228635345 1.6080141799698511 1.2529195401124302 254 228 75 0.41984670982305689 87 723 8 786 31 756 77 724 56 538 77 504 2 518 43 717 74 733 89 246 32 770 15 626 25 481 33 466 28 541 70 744 53 316 45 446 100 572 79 323 24 218 55 229 61 10 84 10
2732 -0.2696036819623247 2.0940408548557845 1.3103305666188707 255 214 67 0.17773775849464449 87 722 8 797 31 752 77 501 74 530 25 541
2733 -1.1198763630657858 2.3631160557223403 2.1680131908168438 205 194 162 0.34354343968992163 87 736 8 847 31 803 77 795 56 845 2 870 43 751 74 843 89 513 60 270 32 842 15 549 25 845 42 237 71 280 28 927 70 942 53 484 45 843 58 801 100 490 41 83 24 109 55 104 83 56 82 51
2734 -1.242321733861135 2.5265431010680888 1.9396741377522451 224 212 178 0.1113773385966338 68 745 8 880 77 823 56 628 31 609 2 885 74 900 25 681 45 863
2735 -1.2065406316361071 2.5615299950757464 1.8901533290854209 207 197 165 0.24256765940002403 68 1005 8 885 31 610 56 627 25 894
2736 -0.90179534620999302 2.7155689549444535 1.5755377361509455 114 116 107 0.13344849076035303 68 1023 8 886 31 602 87 548 77 811 56 616 2 625 74 870 43 508 25 888 58 818
2737 -1.139560798176952 2.6243049127465352 1.7861069379120238 168 162 142 0.21628832880609311 68 754 8 889 77 821 56 625 77 594
2738 0.57928912241034369 1.0726126850072588 1.4074608099389703 154 133 41 0.54816085627146782 68 1061 8 910 31 855 77 834 56 865 60 806
2740 0.33698570388916838 1.6297772325189095 1.9056317111659431 134 95 20 0.31060638445509975 87 939 8 928 31 1002 77 1005 56 1052
2741 0.026373807065261805 1.5790690365659661 1.6188338161620284 200 173 56 0.069203599241370733 87 842 8 942
2742 0.10143820654909898 1.6485232965086372 1.5251644226733265 205 177 58 0.46909240044004119 87 847 8 947 31 903
2743 0.92107732079481242 2.3579721447795015 1.913995576067179 106 73 62 0.065622736590550887 50 925 8 948 31 893
2744 0.49210521306927657 2.5190214579871921 1.5805167776819831 79 57 52 0.45716723449705104 87 858 8 967 31 920 77 902 74 962 89 761 42 691
2745 -1.2949371427700438 2.3689617926292934 2.1918807351715985 150 101 77 1.2391020805647526 87 892 8 1003 31 978 77 981 2 1127 43 916 74 1029 70 1118 53 887 100 912
2746 -1.1532047624170414 2.521781452450889 1.9335889551686296 108 110 100 0.53780727023443153 68 1160 87 1010 8 1010 31 1067 77 1079 56 1115 2 1045 43 1028 74 1111 32 1089 15 1038 25 1013 28 1208 70 1190 53 1011 45 984 58 938 100 894 38 843 75 955 34 1023 7 826 63 771 37 699
2748 0.03704404287936415 1.6841082488708461 1.8578118070574692 58 55 64 0.76611049476346749 68 1203 8 1042 31 905 77 1018 56 1062
2749 0.6753025294453856 2.452377191254508 1.6653469605619282 101 71 59 0.58422816874470429 87 957 8 1046 77 1019 89 859 60 917 13 1091
2750 -0.30260621349225952 1.9687680156793923 2.5915607501894424 159 109 86 0.37725817864127265 50 886 87 849 8 1047 31 1022 77 910 56 956 2 976 43 977 89 868 60 888 42 945 71 935 82 809
2751 -0.48130021128387623 1.9353564847874491 2.5113871487630108 0 0 0 1.1150071932171346 26 1052 8 1053 60 885
2752 -0.65936905571866122 1.5464290671569916 1.3573226732005621 255 235 75 0.42844998214005181 8 1059 31 1039 77 1039 56 1081 87 973 2 1086 43 995 32 1050 15 911
2753 -0.719265038012873 1.5687072790025038 1.328419502760557 255 234 73 0.4376934978678006 87 979 8 1065 31 1041 77 1044 56 1085 2 1089 43 999 89 914 60 853 32 1052 15 912 28 1014 70 1036 53 839 79 642 100 582
2754 -0.72036388292364828 1.567763441761405 1.3279315684392103 255 234 73 0.19310731272577114 87 980 8 1066
2755 -0.91842931150306339 2.2065942930784272 2.324970937450197 152 102 76 0.9009085209852048 87 981 8 1085 31 1054 77 1059 56 1100 2 1112 43 1019 74 990 89 978 60 1024 32 1154 42 977 71 990 53 1100 58 763 82 800
2756 0.11068137666007 1.5164614646544381 1.9176735767843658 120 94 40 0.45178648898336632 87 1038 8 1132 31 1006 77 871 56 1055
2757 0.39772565551310596 2.0508372512837614 1.6838673870384691 220 202 162 1.8187107098114508 68 1373 87 1042 8 1141
2759 0.84140786897013553 1.0405885917373152 2.0109461456879578 204 136 26 0.98187123801984466 68 1327 8 1176 77 1128 56 1198 31 1181
2760 -0.80932114865077565 1.7352597875709017 1.0863538023819528 255 233 75 0.36808607742373195 87 1104 8 1199 31 1165 77 1155 56 1182 43 1105 74 1140
2761 0.31546135482320303 1.1609523470663106 1.7517888058061528 148 129 44 1.1465707345157472 68 1348 8 1212 77 1132
2762 -0.59296405571558508 1.7244183221515299 1.154959521333623 255 228 71 0.43071775561369302 87 1140 8 1238 31 1206
2763 -0.34477102864488324 2.7834567484232626 1.347998114563711 28 22 22 0.56391104388575941 80 614 68 452 8 614 88 684 91 588 39 597 26 762 50 695 13 69 87 537 31 789 77 561 74 591 89 643 60 580 25 625 42 244
2764 0.40721359710658134 1.0111626235021232 1.5195185159978657 197 209 237 0.23500847894492816 8 8 31 15 77 14 56 340
2766 1.3823867638803695 2.2001319814773357 2.0406523536883983 99 65 53 0.17636056540290232 87 73 31 44 56 12
2767 0.57581348912277364 1.7653480661802665 2.8569603954967975 67 60 49 0.19517784348079237 68 48 31 62 56 82 74 57
2768 0.61642663539061349 1.7636657763486177 2.2314957015713928 138 119 89 1.5210032223639323 87 84 31 67
2769 0.46840791600119386 1.7241850330124153 2.8949008547729131 156 110 88 0.22289887762131119 87 53 31 71 56 88
2770 1.1809153318014707 2.2661429711932013 1.9827209563043149 34 21 20 0.75984370367009391 48 341 50 200 31 72 77 66 42 210 13 286 40 167
2771 0.22522571127580501 1.4032370978303377 1.3768969038170318 117 83 18 0.29108030651547406 8 73 31 86 2 17
2772 1.1082701417599257 2.2819282444294195 1.9594573703205262 46 31 28 0.065146359484307872 8 114 31 88 77 72 56 51
2773 1.0538339407194555 2.3122414996918152 1.9030413137497768 103 71 60 0.17841029856701121 8 129 31 94 43 49
2774 0.88655605377841895 2.3612380949150253 1.9331635239029021 216 197 157 0.075790401519848408 8 148 31 109
2775 0.8258679124700935 2.3935834146242101 1.7526267141133101 44 31 28 0.12405298270547067 8 171 31 117 77 113 56 94 2 109 25 95
2776 0.11812177911133565 1.8929254509594233 2.7270917801794119 42 33 27 0.34143869163042512 8 139 87 141 31 118 77 128 56 136 2 170 43 174 74 157 89 118 32 264 15 288 71 164 28 383 70 382 45 158
2777 0.71964444547948647 2.5020661489711924 1.820505604518506 51 32 27 1.5265020180335884 8 195 31 136 77 129 43 112 74 174
2778 0.80882654878109239 2.5957030101883793 1.9242550366219602 51 32 27 1.6618934246961328 8 196 31 137 77 130 25 144
2779 -0.107209837091084 1.9697584945250681 2.6251201441537622 227 212 176 0.46093154119638552 87 172 31 151 77 152 56 172 2 509 43 445 60 80 15 293 28 406 70 400 53 536 55 692 6 667 82 175
2780 -0.29954466748470282 1.7288520157803753 1.9001900059683259 235 192 62 0.078531463969607182 50 138 31 181 89 193
2781 0.42747533108688945 2.5336456291991416 1.6389556246033685 98 67 54 0.24884911642555299 26 346 31 190 77 155 60 121 42 100
2782 -0.53687217440630786 1.6164353007967434 1.2447351627433125 160 125 38 0.033837662197649894 8 217 31 211 77 172
2783 0.16016036811208947 2.6571620918545387 1.5064825782623068 35 27 30 0.27551402418514476 8 268 31 218 77 191 56 185 43 186 74 556 25 573 58 534
2784 -0.50840856328536721 2.4243653353451196 1.5068162555779794 255 233 75 2.71961878213307 80 465 31 263
2785 -0.92590819729327734 2.2552053226529472 2.2579060783472853 45 30 26 0.087592474886103333 8 306 31 267 77 258 2 600 74 296 45 626
2786 -0.8765894166798931 2.0752119190877818 1.5272525747594901 109 83 18 0.46142577478861518 8 595 31 275 77 256
2787 -0.31900239203911573 2.8011888366862974 1.3110158961284273 20 16 18 0.13165718526767312 87 316 31 277 56 237
2789 -1.0675466966826013 2.3848373118681558 2.1420465150732668 213 200 164 0.1286912799625099 8 333 31 296 2 350 74 340
2790 -0.41742917570093835 2.8541228648599373 1.2531493046197997 108 76 60 0.27244872882931026 8 369 31 297 77 276 2 296 74 324 89 245 60 36 25 312 42 22
2791 -0.3995178274749312 2.8670931426388431 1.2287998666495583 50 41 41 0.17974792218660757 8 370 31 298 56 256 2 293 74 323 25 649 45 252 58 352
2792 -0.3980744861134915 2.8696313437129004 1.2308482276594164 50 41 41 0.14740100787922739 8 371 31 299 56 257 2 294
2793 -1.0057648735936375 2.476028674679525 1.990807107410681 76 80 74 0.22469635474344948 8 618 31 307 77 582 56 611 2 622 74 611 25 648
2794 -1.1416625126942643 2.3810227836962454 2.1480125417223519 101 101 93 0.23111944717215621 8 338 31 308 77 307 2 361 74 614 25 644 45 345 58 621
2795 -0.99921469424877318 2.6040837704130024 1.7658076013192541 127 125 114 0.18831579003057419 87 325 31 323 77 589 56 309 2 632
2796 -1.0953642260232463 2.5486174243448412 1.8799446288730022 85 90 87 0.11916457393793863 8 375 31 325 77 322
2797 -1.0583585420655868 2.5792191430008602 1.8278697769713121 81 86 84 0.10774507497293151 8 377 31 326 77 320
2798 -0.55156728580305159 2.922492354779632 1.2287672334108006 168 157 132 0.052945108132240182 87 336 77 304
2799 -0.70399422593821026 2.9912063519051659 1.10209188539486 77 57 50 0.26178438835483558 8 645 31 340 56 304 2 621 74 897 45 818
2801 0.74657847579704706 1.6067994065853082 3.0606802730598934 185 151 136 0.29237065392986239 8 407 31 363 77 632 56 676 74 410
2804 0.54442219114723123 1.7384133289459507 2.8861077542320355 121 94 84 0.28636846914025949 87 367 31 403 56 418 74 56
2805 -0.0015005845124161366 1.1756225753342535 1.7015816676852249 241 206 67 0.19048498172956024 8 411 31 411 77 60 56 64
2806 1.0301637978265952 2.2757934894308183 1.9470028624347824 98 64 49 0.3537463271995071 87 642 31 430 77 387 8 123 74 75
2807 0.2496814786037676 1.7660963858334606 2.8027836196423315 152 105 81 0.28521865620798431 8 443 31 439 56 448 2 145 74 114 25 66
2808 0.29364032072969171 1.8275040298884266 2.7743354435918981 106 76 66 0.18662120613910577 50 375 31 440 43 421 2 146 89 424 32 512 15 532 71 445 70 360 28 368 83 449
2809 0.86811618507691624 2.3561436902968333 1.9252497642410975 218 199 160 0.14330887884350718 87 446 31 458 77 411
2810 -0.14985677065727521 1.4716026522109609 1.8500729649581433 242 206 76 0.41120398331576108 87 445 31 465 43 679
2811 0.79306811071372707 2.3986114735380113 1.7614275375061592 106 73 61 0.19102249029702206 8 489 31 467 77 419 56 436 43 391 74 463 25 500
2812 0.42010580939808839 2.5360284666256043 1.5754814181946659 88 64 55 0.19274899254871769 8 546 31 492 77 463 56 468 2 172 74 512 25 162 58 197
2813 0.3640467660569725 2.5883743453303771 1.566338828127763 56 44 43 0.04158012463882374 50 511 31 506
2814 -0.53372327217854132 1.7034106802913085 1.1178254207921521 160 130 39 0.10396214894831472 8 561 31 535 77 497
2815 -0.32016097558887013 2.1271982211357692 1.2656307735880175 1 1 4 0.90967384049487965 8 574 31 540 60 42 25 544 42 26
2816 -0.74673354578805429 1.6605712085875315 1.1996199009566828 254 226 69 0.21088672462791153 68 634 31 547 77 519 56 546 2 533 43 487 74 513 32 502 15 135 45 83
2817 -0.8482187892713402 1.6131429164809095 1.3156192696362208 59 56 60 0.49798226900106302 87 272 31 548 77 528 56 557 43 491
2818 8.9539337748708512 25.469588161965181 22.87924535667397 157 131 41 3.2843611155508134 50 184 31 556
2819 -0.75822940324881039 1.7324867262212575 1.0847566207949257 162 133 41 0.012081829934553329 87 525 31 559
